ply
format ascii 1.0
element vertex 1218
property float x
property float y
property float z
property uchar red
property uchar green
property uchar blue
end_header
0.190593 0.548531 -0.179069 255 0 0
0.044701 -0.396639 0.160265 151 207 103
-0.109649 -0.079815 -0.090491 133 243 121
-0.157190 -0.066449 0.192877 54 108 200
0.269879 0.320543 -0.046061 227 55 27
-0.027980 -0.129321 0.056960 119 238 135
0.421209 -0.185072 0.117650 74 149 180
0.175934 0.303138 -0.091328 221 66 33
0.089751 -0.278314 0.008953 165 179 89
0.006273 0.160776 -0.019298 146 217 108
-0.019649 0.211914 0.199607 118 236 136
0.022356 -0.299658 0.113094 146 216 108
0.205648 0.259422 0.246913 143 223 111
0.253557 0.213147 0.091285 167 174 87
-0.114840 -0.441050 0.158079 122 245 132
-0.156468 -0.108156 0.348729 68 136 186
0.485545 -0.320221 0.400067 72 144 182
0.293816 0.158660 0.040451 173 162 81
0.486239 -0.254638 0.455732 94 189 160
0.134556 -0.247324 -0.016155 157 195 97
-0.130834 0.397463 -0.066863 180 149 74
-0.075261 0.591918 -0.075484 240 29 14
-0.115707 -0.055229 -0.126306 141 226 113
0.201816 -0.227647 -0.020940 141 227 113
0.156763 0.058311 0.538182 59 118 195
0.126912 -0.177511 0.683358 80 160 174
0.017241 0.517332 -0.073103 231 46 23
0.000782 -0.402428 0.452072 118 237 136
0.313604 0.012903 -0.157392 189 131 65
0.264474 0.390946 -0.066637 247 14 7
0.297175 0.381556 -0.087564 252 4 2
-0.136751 -0.209778 0.286439 89 179 165
-0.207213 -0.005194 0.228472 29 58 225
0.404583 -0.173892 0.644719 81 162 173
0.217744 0.115687 0.025958 167 175 87
0.385579 -0.000633 0.316021 94 188 160
-0.018226 -0.039522 -0.170652 170 169 84
-0.004683 0.136539 0.132503 114 229 140
-0.081700 -0.216532 0.089515 115 231 139
-0.013554 0.160914 0.244727 109 218 145
-0.049727 -0.082968 0.549429 81 162 173
-0.025672 0.057900 -0.028966 131 246 123
0.065298 -0.283254 0.045989 159 190 95
0.401197 -0.444998 0.354276 75 151 179
0.195764 0.104862 -0.000320 173 163 81
0.161110 -0.440336 0.193182 128 252 126
-0.068960 0.089036 0.004722 115 231 139
0.103787 -0.269282 -0.024905 164 180 90
0.138656 0.181394 0.134470 148 213 106
0.235019 0.094048 -0.119423 210 89 44
-0.021871 -0.392989 0.217616 146 217 108
0.427424 -0.068568 0.265944 107 214 147
0.328827 0.265886 0.115349 179 150 75
0.308320 -0.018884 0.045109 147 215 107
0.215233 -0.299760 0.736010 115 230 139
0.392907 0.059772 0.247050 118 236 136
0.085477 -0.440610 0.438810 119 239 135
0.196222 -0.469458 0.367503 130 249 124
-0.056980 0.188810 0.033832 125 250 129
-0.131791 0.169846 0.263366 79 158 175
0.256928 0.158219 -0.006242 184 140 70
0.252822 0.151188 -0.012921 185 138 69
0.365267 -0.455013 0.318673 77 154 177
0.331537 0.420814 -0.280009 255 0 0
0.309016 0.292542 0.122864 182 144 72
0.472966 -0.192060 0.317992 72 145 182
0.283756 0.105902 0.072275 155 199 99
0.390298 -0.369270 0.213425 48 96 206
0.168412 0.196620 -0.020255 192 124 62
0.358208 0.390774 -0.274989 255 0 0
-0.202585 -0.094406 0.207506 46 92 208
0.004962 0.298703 0.135502 147 214 107
-0.092679 -0.000352 -0.139890 147 214 107
-0.150687 0.143482 0.252919 68 136 186
0.130839 -0.103642 -0.164467 177 155 77
0.286109 0.388760 -0.065135 248 13 6
0.197921 -0.028960 0.041718 146 217 108
0.408968 -0.482328 0.630814 124 249 130
0.462151 -0.147546 0.401177 101 203 153
0.349183 -0.076707 0.059130 123 246 131
-0.145085 -0.006789 0.175646 55 111 199
0.220962 0.282707 0.196522 159 190 95
0.098793 -0.014278 0.593969 58 116 196
0.068763 0.278570 -0.033839 181 146 73
-0.023559 0.060150 -0.021819 130 248 124
0.343816 -0.093538 -0.129439 156 197 98
-0.188332 -0.211859 0.149426 86 173 168
0.285806 -0.106073 -0.097921 155 198 99
-0.110470 0.008578 -0.067656 123 247 131
0.174009 0.136500 0.060271 159 191 95
0.153684 0.374106 0.127664 197 114 57
-0.032716 -0.021844 0.541453 79 158 175
0.294351 -0.228398 0.739712 110 221 144
-0.144617 0.040156 -0.083715 123 247 131
-0.087690 0.014729 -0.151793 152 205 102
0.459912 -0.121200 0.326037 95 190 159
-0.030875 0.272873 0.109043 136 237 118
0.244659 -0.030708 0.027310 152 204 102
-0.083555 0.405678 0.002661 175 158 79
-0.168430 -0.050846 0.349205 57 114 197
-0.174548 -0.107032 0.358410 66 132 188
0.147611 0.359385 -0.296810 255 0 0
-0.098280 0.362209 -0.004277 163 183 91
0.474171 -0.181327 0.320303 76 152 178
0.148183 0.509202 -0.003021 243 22 11
-0.039846 -0.112462 0.072801 111 222 143
0.240088 0.516623 -0.111355 255 0 0
-0.026360 -0.240441 0.055117 138 233 116
0.155433 0.083211 -0.149393 205 99 49
-0.066747 -0.147439 -0.024495 130 249 124
-0.009227 0.335857 -0.040252 178 153 76
0.259149 0.386531 -0.064295 246 17 8
0.226333 -0.006288 0.040798 148 212 106
0.213779 0.181254 -0.384923 249 10 5
-0.090348 -0.130900 0.511622 91 183 163
0.126542 0.168096 0.185374 132 244 122
-0.089954 0.513722 -0.005876 206 97 48
0.213067 0.087259 -0.155678 220 68 34
0.231983 -0.008374 0.047417 146 216 108
0.488021 -0.390223 0.545873 94 189 160
0.193096 0.252741 0.034680 189 131 65
0.039502 -0.216758 0.038556 152 205 102
0.410504 -0.415480 0.312931 60 120 194
0.248008 -0.006725 -0.013382 167 174 87
-0.083181 0.011028 -0.129116 146 217 108
-0.168368 -0.225257 0.317874 90 181 164
0.215123 0.002148 0.048297 146 216 108
0.382294 -0.118412 0.626636 89 179 165
0.253045 0.387093 -0.046992 241 26 13
0.474189 -0.236086 0.568524 69 138 185
0.076319 0.189969 0.277244 122 244 132
0.070592 0.132558 0.410386 88 176 166
0.035473 0.168258 0.234078 125 250 129
0.013076 0.414636 -0.039563 200 109 54
0.172157 -0.145781 0.688410 77 154 177
0.138892 0.517047 -0.039710 248 13 6
0.139941 -0.457860 0.454060 122 244 132
0.445436 -0.203988 0.626868 68 137 186
0.098556 0.475780 0.055983 218 72 36
-0.053137 0.025463 0.056298 104 208 150
-0.081514 0.547752 -0.056829 224 61 30
-0.202996 -0.127127 0.207675 54 109 200
-0.059238 0.066044 -0.141470 155 198 99
0.161911 -0.453690 0.196263 129 250 125
0.369047 0.054297 0.190023 126 252 128
0.401305 -0.490057 0.549779 135 239 119
0.237297 0.080181 0.001882 170 169 84
0.074503 -0.413706 0.527229 113 227 141
0.271186 0.207534 0.083732 169 170 85
0.109153 0.038297 0.032356 155 199 99
0.102788 -0.087537 -0.168233 186 136 68
0.171881 0.200373 -0.146951 217 74 37
0.017472 -0.091718 0.080942 123 246 131
0.290704 -0.077430 -0.110596 163 183 91
0.111227 -0.459750 0.377453 127 254 127
0.313980 0.126859 0.230326 120 241 134
0.309062 0.332794 -0.089271 243 23 11
-0.157702 -0.042367 0.249167 47 95 207
0.435390 -0.105040 0.545117 89 179 165
-0.119086 -0.319662 0.346065 128 253 126
0.237050 0.092911 -0.145675 216 76 38
-0.112412 0.005060 -0.111878 136 237 118
0.330739 -0.357188 0.125107 72 144 182
-0.031181 -0.337884 0.085952 145 218 109
0.365181 -0.002747 0.119628 135 238 119
-0.032214 -0.157033 0.580883 82 165 172
-0.149529 -0.065058 0.151465 62 124 192
-0.086792 0.089285 -0.096624 139 231 115
-0.134005 0.013002 0.327929 60 120 194
-0.102826 -0.106955 -0.094098 137 234 117
0.188956 -0.280823 0.725852 107 215 147
0.258515 -0.109409 -0.174426 154 201 100
0.294745 0.478989 -0.217971 255 0 0
0.188798 0.247340 -0.385284 255 0 0
0.269615 -0.166739 0.704760 90 181 164
-0.169048 -0.211514 0.346473 89 179 165
-0.027823 0.011557 -0.167610 167 175 87
0.210570 0.331852 -0.379645 255 0 0
0.374974 0.048711 0.176040 130 249 124
0.002881 0.151479 0.282921 113 226 141
0.238757 0.033051 -0.164840 201 106 53
0.235542 -0.212814 0.006479 129 251 125
0.355935 0.024632 0.446192 75 150 179
0.482419 -0.207979 0.311391 66 133 188
0.085382 0.103788 0.172121 124 249 130
-0.133745 -0.023515 0.391755 73 146 181
0.294928 0.528216 -0.309759 255 0 0
0.331274 0.051964 -0.070842 179 150 75
0.246225 -0.008817 -0.066391 177 155 77
0.406939 -0.088820 0.555237 85 170 169
-0.132817 -0.324881 0.196787 124 248 130
0.286634 0.033097 0.026549 160 188 94
0.177761 -0.472002 0.405560 128 253 126
0.261691 0.423543 -0.324364 255 0 0
-0.093076 -0.025497 0.478144 94 188 160
0.213564 0.146218 -0.390674 238 32 16
0.268800 0.337405 -0.045461 230 48 24
0.198227 0.290337 -0.058941 219 70 35
0.293861 -0.117298 -0.128179 153 203 101
-0.031073 -0.334348 0.511647 106 213 148
0.041340 0.173641 -0.022532 157 195 97
0.330970 0.315255 -0.188199 255 0 0
0.280825 0.319696 -0.046284 227 54 27
-0.203815 -0.139780 0.170640 62 124 192
-0.062610 -0.004819 0.506538 87 175 167
-0.007283 0.503193 0.022704 210 88 44
0.346819 0.037799 0.099281 145 219 109
0.479954 -0.262131 0.328007 58 116 196
-0.016634 -0.071640 -0.171555 172 165 82
0.356362 -0.094711 0.058459 117 234 137
0.153792 -0.376733 0.108169 131 246 123
0.067930 0.056519 0.015708 146 216 108
0.097864 0.058071 -0.026296 162 184 92
0.049628 -0.111901 -0.005131 149 211 105
0.157084 0.331409 -0.201140 243 23 11
0.164729 0.336743 -0.070523 220 68 34
0.069079 0.090509 -0.111075 175 158 79
0.288206 0.027639 0.087317 141 227 113
-0.166088 -0.238481 0.284962 92 185 162
0.241752 0.138596 -0.021317 185 138 69
0.373299 0.343004 -0.304148 255 0 0
0.095366 -0.222675 0.073203 142 225 112
0.147836 0.405310 0.117658 207 94 47
0.414815 -0.337279 0.219344 40 81 214
0.004653 0.116821 0.195072 109 219 145
0.425768 -0.066988 0.233865 106 212 148
0.099966 -0.285216 0.010986 161 187 93
0.125093 -0.331510 0.056552 146 217 108
0.133970 -0.461838 0.472075 123 247 131
-0.043137 -0.156909 0.567343 83 167 171
-0.060425 -0.374402 0.416256 123 247 131
0.320704 0.138540 -0.053342 200 109 54
-0.022962 -0.233648 0.050207 138 233 116
-0.122998 -0.090377 0.243248 65 130 189
0.168010 0.031131 0.021298 157 195 97
0.152493 -0.088046 -0.167276 177 155 77
-0.132671 -0.194700 0.199736 87 174 167
0.017608 0.047837 0.055938 124 249 130
0.435974 -0.144855 0.584217 79 158 175
-0.028014 0.302911 -0.081379 176 157 78
0.047768 -0.232988 -0.065336 175 158 79
0.263708 0.375546 -0.044726 238 32 16
-0.018117 -0.064352 -0.171626 171 167 83
0.076123 0.082595 0.018189 149 210 105
-0.087848 -0.207783 0.128916 106 213 148
0.113109 0.089678 0.013008 161 186 93
0.416516 -0.096832 0.099677 102 204 152
0.259659 -0.125329 -0.006583 139 230 115
0.337254 -0.476000 0.335640 90 181 164
-0.057912 0.176756 0.133175 106 213 148
0.280344 0.382244 -0.062685 245 18 9
0.093053 0.500762 -0.165891 255 0 0
0.110011 0.031038 0.030215 155 198 99
0.286523 -0.488648 0.488943 137 235 117
0.337954 0.121569 0.065666 165 179 89
-0.081672 0.521972 -0.006067 209 90 45
0.100693 0.083855 0.019858 156 196 98
0.318632 0.335929 -0.117485 252 5 2
0.290345 0.159938 0.064472 167 175 87
0.246167 -0.476160 0.540175 132 244 122
0.406079 -0.130743 0.613511 85 171 169
0.400448 -0.027383 0.457646 80 161 174
0.171992 -0.000861 0.023486 153 202 101
0.138280 -0.018590 -0.009291 164 181 90
0.427653 -0.106471 0.542322 90 180 164
0.106466 -0.440357 0.487839 118 236 136
0.336941 -0.344590 0.124553 70 140 184
-0.053589 0.204932 0.085411 119 239 135
0.433963 -0.152402 0.603621 76 153 178
0.367233 0.000057 0.482109 74 148 180
-0.035917 -0.085641 0.021468 119 239 135
0.006853 -0.418661 0.367543 126 253 128
0.335629 0.314704 -0.089172 241 26 13
-0.169899 0.094031 0.034462 89 178 165
0.368126 0.056523 0.227569 117 234 137
0.268123 -0.023695 -0.155758 181 146 73
0.251748 -0.080537 -0.153700 165 178 89
-0.175187 -0.119051 0.358459 68 136 186
-0.201371 -0.112361 0.234380 49 98 205
0.203140 0.523068 -0.083749 255 0 0
0.087333 0.052746 0.206794 106 212 148
0.307369 -0.252469 0.044216 98 197 156
0.064893 0.169973 0.044277 150 208 104
0.164524 -0.462210 0.485802 123 246 131
0.120074 0.089715 0.000831 165 178 89
0.104072 0.027489 -0.005147 159 190 95
-0.082841 -0.200086 0.504694 94 189 160
-0.194281 -0.036235 0.174795 43 86 211
0.354393 0.403255 -0.221576 255 0 0
0.208298 0.232683 -0.367015 255 0 0
-0.038994 -0.157012 0.570491 82 165 172
0.346036 -0.156886 0.681154 95 191 159
0.341905 -0.203667 0.704702 101 202 153
0.033840 -0.218937 0.053964 148 212 106
0.113925 -0.369533 0.092982 146 217 108
0.410487 -0.472200 0.444496 101 203 153
-0.016573 0.096311 -0.003295 130 248 124
-0.036524 0.029130 -0.025427 127 254 127
-0.013520 0.270028 -0.015974 159 191 95
-0.010866 0.236268 -0.021387 154 201 100
0.220666 -0.451704 0.640103 134 240 120
0.115716 -0.196322 0.683544 83 166 171
-0.081120 0.031211 -0.130689 147 215 107
0.016172 0.247523 -0.025729 163 183 91
-0.034128 0.129551 0.288643 98 197 156
0.235373 0.078536 -0.163754 216 77 38
-0.121132 -0.265982 0.186945 109 219 145
0.272764 0.107645 -0.302916 218 73 36
0.324215 -0.060962 0.043677 133 242 121
0.485598 -0.240792 0.431540 90 181 164
0.029014 0.096580 -0.003969 142 225 112
0.316846 0.305741 0.066674 199 111 55
0.222377 -0.209804 -0.002101 134 240 120
0.072722 0.039816 0.023519 145 218 109
0.106278 -0.190946 -0.023478 170 168 84
0.114654 0.208599 -0.022108 180 149 74
0.228606 0.216278 -0.399855 255 0 0
-0.015382 -0.298179 0.064033 151 206 103
0.004615 0.151612 -0.018815 144 220 110
0.254628 -0.463603 0.237956 101 203 153
-0.111227 -0.074342 -0.150018 150 209 104
0.107875 0.113688 0.044345 157 195 97
-0.083405 0.195636 0.271882 97 194 157
0.087310 -0.050051 0.612822 60 121 194
0.335035 -0.219083 0.722172 104 208 150
0.028033 -0.427066 0.272028 138 233 116
-0.032718 0.064208 0.482093 89 179 165
-0.044839 -0.081726 0.070893 106 213 148
0.326462 0.223534 -0.263787 253 2 1
0.031093 0.088158 -0.027102 147 215 107
0.166485 0.485454 0.039375 237 35 17
-0.144263 -0.217389 0.164364 93 187 161
0.104389 -0.445412 0.332009 128 253 126
-0.015680 0.043870 0.515237 82 165 172
0.052085 0.080659 0.011766 144 221 110
0.321482 -0.011336 0.032476 148 212 106
0.156891 -0.281028 0.711709 104 208 150
0.387892 -0.045847 0.528900 78 156 176
-0.107499 0.005502 -0.150816 149 211 105
-0.098809 0.059474 0.068556 91 183 163
-0.123531 -0.110851 0.462849 100 200 154
0.186727 -0.014593 0.000402 160 188 94
-0.156891 0.139371 0.089892 84 169 170
-0.062595 -0.162264 0.012658 124 248 130
0.332763 -0.136784 -0.117609 145 219 109
-0.085698 -0.170718 0.116019 101 202 153
0.023446 -0.395418 0.167584 151 207 103
-0.114517 -0.117539 0.466963 98 196 156
-0.018790 0.204807 0.156284 119 239 135
0.279005 -0.369451 0.106355 91 182 163
-0.066945 -0.265895 0.153198 122 245 132
0.403226 -0.487673 0.602240 129 251 125
-0.074020 -0.258706 0.139033 120 241 134
-0.053210 -0.286296 0.155800 130 248 124
0.120861 0.443690 -0.230535 255 0 0
0.390648 0.041546 0.325938 99 199 155
0.252723 0.328472 0.000810 216 77 38
-0.014098 0.025450 -0.011618 129 251 125
-0.018422 -0.198095 0.205163 114 229 140
-0.026610 -0.274861 0.565947 96 193 158
0.106313 0.124874 0.209882 117 235 137
-0.152377 -0.014094 0.294362 50 100 204
0.158613 -0.220144 0.012840 148 212 106
0.273071 0.358538 -0.068115 241 27 13
0.002804 0.100432 -0.001137 135 239 119
0.112019 0.218535 0.262075 130 249 124
0.299762 -0.277314 0.749270 120 240 134
0.325023 0.042964 -0.168712 197 115 57
0.451794 -0.147430 0.532911 83 167 171
-0.021829 -0.135326 0.588086 79 158 175
0.121005 0.155392 -0.076223 185 138 69
0.325737 -0.141362 -0.137674 141 226 113
0.438515 -0.136171 0.164493 82 165 172
0.132482 0.029319 0.010066 161 187 93
-0.099661 -0.357772 0.292270 139 231 115
-0.135240 -0.261805 0.222631 104 208 150
0.450493 -0.175558 0.185056 68 136 186
0.038585 -0.369393 0.145860 149 211 105
0.303022 -0.077244 0.118820 125 251 129
-0.137552 -0.020314 0.346228 62 125 192
0.486134 -0.391851 0.493262 102 205 152
0.342724 -0.489808 0.393190 102 205 152
0.461519 -0.290167 0.259946 39 79 215
0.034738 0.132168 0.401096 94 188 160
-0.163249 -0.104253 0.310801 60 120 194
0.012641 -0.084130 0.077786 121 243 133
0.258583 -0.140234 0.690181 82 165 172
-0.080288 0.032482 -0.136114 149 211 105
-0.145771 0.150266 0.104335 86 172 168
0.150137 0.333542 -0.245406 251 6 3
0.188989 0.178466 0.363689 100 201 154
0.202252 0.283069 -0.074371 222 65 32
-0.124532 -0.174819 0.075092 101 202 153
-0.078777 -0.175737 -0.093560 149 211 105
-0.115923 -0.320219 0.361928 128 252 126
0.271792 0.391380 -0.069199 249 11 5
-0.024243 -0.222622 0.058913 134 240 120
0.294844 -0.493772 0.400901 115 231 139
0.123097 0.181397 0.190961 134 240 120
-0.194120 -0.098014 0.296473 50 100 204
-0.104272 0.080992 -0.083596 132 245 122
-0.151321 0.006039 -0.128592 136 237 118
-0.029605 -0.373655 0.211050 144 220 110
0.159530 0.047156 -0.069742 188 133 66
-0.029777 0.023418 -0.165954 166 177 88
-0.202187 -0.133514 0.112397 71 142 183
0.159015 0.188164 -0.132577 210 89 44
-0.160698 0.044360 -0.165439 147 214 107
0.329908 0.309320 0.002531 216 76 38
0.295467 -0.131131 -0.170670 143 222 111
-0.052149 -0.372765 0.029956 125 251 129
0.354971 0.013832 -0.103797 173 163 81
0.346417 -0.088889 0.047757 121 243 133
-0.006861 0.129677 0.198986 107 215 147
-0.036095 0.081965 0.164214 95 190 159
0.217215 0.318851 0.021410 207 94 47
0.087372 -0.130840 0.004758 159 191 95
0.032689 -0.035668 -0.171133 180 149 74
0.183318 -0.462591 0.532743 125 250 129
0.207693 -0.477353 0.452156 128 252 126
0.273767 0.356715 -0.067899 241 27 13
0.367845 -0.433447 0.735580 122 245 132
0.396363 0.151660 -0.365021 228 52 26
0.429567 -0.087356 0.440017 87 175 167
0.157392 0.389089 -0.315034 255 0 0
0.323906 0.399898 -0.127576 255 0 0
-0.079567 0.521955 -0.006411 209 90 45
-0.116416 0.031684 0.366082 72 145 182
0.432606 -0.274859 0.190343 43 87 211
0.217049 0.160930 0.374761 94 189 160
0.361095 0.256645 -0.340862 255 0 0
0.312391 0.154952 -0.039298 197 114 57
0.133127 0.025584 -0.172254 203 103 51
-0.141421 -0.247025 0.114461 108 216 146
-0.121538 0.032698 0.226608 59 118 195
0.435668 -0.162509 0.149468 75 151 179
-0.140828 0.006331 0.322298 57 114 197
0.447514 -0.121541 0.152221 86 173 168
0.117246 -0.195500 0.074610 138 233 116
-0.165789 -0.106717 0.344558 65 130 189
-0.176355 -0.101900 0.021859 92 185 162
0.418944 -0.061635 0.521699 86 173 168
0.464558 -0.153700 0.391974 98 197 156
0.273520 -0.402551 0.138568 90 181 164
-0.045834 0.115111 0.152861 97 195 157
0.451453 -0.168227 0.572223 74 149 180
-0.193026 0.007321 0.267136 34 68 220
0.413184 -0.018584 0.424422 87 174 167
0.094395 0.115541 0.023728 156 196 98
-0.130184 -0.033002 0.408673 78 156 176
0.031026 0.069233 -0.153785 176 156 78
0.260461 -0.117308 -0.147550 154 201 100
0.313818 0.151813 0.077776 164 181 90
-0.087582 -0.159231 -0.113455 150 208 104
0.160322 -0.490278 0.430004 133 243 121
0.232203 0.249179 -0.002746 199 111 55
0.213030 0.239758 0.021301 190 129 64
0.087324 0.232306 -0.024239 176 156 78
-0.170553 -0.071765 0.350664 59 119 195
-0.005456 0.140193 0.206725 109 218 145
0.459030 -0.186999 0.572445 72 144 182
-0.032543 0.124508 0.272074 98 196 156
0.238101 0.247234 -0.419729 255 0 0
-0.124511 -0.281879 0.226313 111 223 143
0.169971 0.164434 0.077666 159 191 95
0.200206 -0.271720 0.009522 132 245 122
0.181473 0.143368 0.051841 163 183 91
0.348477 -0.294116 0.096365 74 148 180
0.214180 -0.138802 -0.021967 150 208 104
0.221521 0.183066 -0.403673 250 9 4
0.353832 -0.010034 0.067887 139 230 115
-0.058935 -0.163660 -0.013861 131 247 123
0.092851 0.067201 -0.019862 160 188 94
0.390933 -0.000605 0.403819 83 167 171
0.151235 0.153415 0.112965 147 214 107
0.255081 0.241468 -0.072350 218 73 36
0.296143 0.141771 0.032892 173 163 81
0.295129 0.184697 -0.250025 242 24 12
0.192697 -0.383942 0.095170 120 240 134
-0.106685 -0.004713 0.444261 91 183 163
0.046844 0.197619 -0.024513 162 185 92
0.090958 0.144453 -0.115523 185 138 69
0.270837 0.505345 -0.138959 255 0 0
-0.158790 0.102612 -0.002887 102 204 152
-0.137065 -0.300388 0.030159 132 245 122
0.243131 0.226446 -0.025446 201 106 53
0.189635 0.197727 0.005110 186 137 68
0.216578 0.119448 -0.360573 228 53 26
-0.099622 0.062830 -0.153910 152 204 102
0.140373 -0.021299 -0.171361 198 113 56
0.029095 0.059009 -0.049563 149 210 105
0.347236 0.052716 0.123523 140 229 114
0.234262 0.305952 -0.396723 255 0 0
0.316980 0.215104 0.027355 189 130 65
0.006689 0.021558 -0.058991 145 219 109
0.418158 -0.477178 0.478465 111 222 143
0.287280 0.421802 -0.063682 255 0 0
0.330964 0.254651 0.112022 178 153 76
0.151268 0.311992 -0.102248 219 71 35
-0.066242 -0.249263 0.528689 98 196 156
0.093868 0.091091 -0.127176 185 139 69
0.284567 0.157030 0.065767 165 178 89
-0.118828 0.043790 0.312728 64 129 190
0.130551 0.208332 0.006581 179 150 75
-0.068782 0.364437 0.011971 165 178 89
0.268604 0.488029 -0.091019 255 0 0
-0.108466 -0.357055 0.118815 133 242 121
0.151457 0.331569 -0.261935 255 0 0
-0.094042 -0.160131 0.109938 98 196 156
0.336020 -0.145398 -0.158173 137 235 117
0.125099 0.002710 0.587102 56 113 198
0.447582 -0.457631 0.651227 109 219 145
0.082265 -0.065337 -0.170402 191 126 63
0.255659 0.121421 0.044043 164 181 90
0.283962 0.234631 -0.285790 255 0 0
0.355994 -0.414467 0.748194 122 245 132
0.117618 0.165765 -0.089224 188 132 66
0.289689 0.515779 -0.240095 255 0 0
0.106440 0.189105 0.046199 164 180 90
0.158507 -0.460001 0.499252 123 246 131
0.267976 0.189140 -0.047920 202 104 52
0.293277 -0.066141 -0.179495 163 182 91
0.219559 0.133128 -0.361033 232 44 22
-0.071079 -0.047558 0.510217 86 172 168
0.322290 -0.382736 0.149741 73 146 181
0.189966 -0.241006 -0.055022 146 216 108
-0.132996 -0.399717 0.125092 121 242 133
0.187314 0.168742 0.025581 175 159 79
-0.094121 -0.442747 0.029368 100 200 154
0.046282 -0.215309 0.025535 155 198 99
0.329836 0.302584 -0.196581 255 0 0
0.162757 0.283883 0.039637 194 120 60
-0.033933 0.120622 0.356722 103 207 151
0.246531 -0.148388 -0.150824 146 216 108
0.052140 0.088525 -0.028652 152 204 102
0.280610 0.138299 0.342972 98 196 156
0.061604 0.101908 -0.015397 153 202 101
0.021136 -0.280982 0.022796 162 185 92
0.036507 -0.429919 0.388028 124 248 130
-0.036536 -0.285523 0.148761 134 240 120
0.326258 0.342870 -0.362234 255 0 0
-0.069613 -0.088083 0.537432 86 172 168
0.175687 -0.327890 0.717359 115 231 139
0.262162 -0.096051 -0.178349 157 194 97
0.078025 0.111818 0.451891 79 158 175
0.037717 0.497037 -0.115008 236 36 18
0.283053 0.318496 -0.074310 235 39 19
0.164422 -0.276564 -0.031495 149 211 105
0.300093 -0.066395 -0.169429 163 182 91
0.067719 -0.393176 0.584238 113 226 141
0.407076 0.020936 0.311870 103 206 151
-0.132399 0.017649 0.190904 57 115 197
-0.152070 -0.224527 0.307218 92 184 162
-0.121200 -0.117238 0.191882 72 145 182
-0.077165 0.073144 0.412355 95 190 159
0.333456 0.132187 0.064477 166 176 88
0.192779 -0.475781 0.404964 129 250 125
-0.124902 -0.080272 0.262843 63 126 191
0.196361 0.305124 0.079821 190 129 64
0.347373 -0.334013 0.756958 111 223 143
0.310358 0.436510 -0.113004 255 0 0
0.237942 -0.043092 -0.044523 167 174 87
-0.057097 0.151891 0.133212 102 204 152
-0.025077 0.083718 -0.076242 145 219 109
0.109951 -0.284975 0.687223 100 201 154
0.298654 0.117339 0.344764 94 189 160
-0.160180 -0.292179 0.153446 113 227 141
-0.137954 -0.030719 0.409346 76 153 178
0.101366 -0.412827 0.587629 116 233 138
-0.149780 0.025616 0.288209 50 101 204
0.195333 0.341683 -0.052299 226 57 28
0.032722 0.121563 0.119116 125 250 129
0.335398 0.084567 0.019404 172 164 82
-0.130836 -0.156612 0.424433 97 194 157
-0.041797 0.110506 0.234464 92 185 162
-0.113254 -0.322005 0.372851 127 254 127
0.243142 0.280649 -0.214155 255 0 0
0.364424 0.019115 0.424110 77 155 177
-0.188060 -0.192845 0.063037 97 194 157
-0.130455 0.447018 -0.044367 189 131 65
0.015490 0.057810 0.140629 112 224 142
0.302278 -0.069845 0.121008 125 250 129
0.325864 0.070270 0.393667 81 162 173
0.361310 -0.478856 0.412918 102 204 152
0.085426 0.530036 -0.107246 251 6 3
0.165357 -0.459964 0.290328 132 244 122
0.208814 0.133469 0.064723 158 193 96
0.316679 0.210255 -0.128858 232 44 22
0.185376 0.217676 -0.363020 255 0 0
-0.019664 0.216156 -0.057008 156 196 98
0.149384 -0.456602 0.489684 121 243 133
0.488560 -0.320561 0.391820 69 138 185
0.333785 -0.487810 0.593109 145 218 109
0.385892 -0.423411 0.288572 62 125 192
0.463850 -0.352630 0.683265 78 157 176
0.063830 -0.300159 0.083288 151 207 103
0.290185 0.100852 -0.130279 208 93 46
0.205214 0.166102 -0.416444 247 15 7
0.155563 -0.258275 -0.004996 148 212 106
0.292766 0.483615 -0.129955 255 0 0
-0.189986 0.054985 0.081774 68 137 186
0.427118 -0.483011 0.575965 125 250 129
0.151630 0.523741 -0.118535 255 0 0
0.128867 0.203955 -0.042058 186 136 68
-0.052964 -0.143249 -0.137652 161 186 93
0.241622 0.074085 -0.166484 214 81 40
-0.176806 -0.159846 0.346121 75 150 179
-0.010292 0.135949 0.155244 110 221 144
-0.018185 0.422642 -0.058760 200 109 54
-0.085177 -0.357740 0.299558 136 237 118
-0.018039 -0.109426 -0.163288 171 166 83
0.376932 -0.179983 0.672747 89 178 165
-0.032564 0.080004 0.169841 95 191 159
0.374323 0.022871 0.345704 89 179 165
-0.055383 0.190404 0.081906 117 234 137
0.100639 -0.237459 -0.062383 164 180 90
0.040443 -0.412936 0.267813 133 242 121
0.312998 -0.159021 0.692201 92 185 162
-0.169565 0.016526 -0.161073 144 220 110
0.120899 0.090253 0.011353 164 181 90
-0.135294 -0.251250 0.222343 101 202 153
0.196387 -0.052046 0.634618 60 120 194
0.365743 0.322429 -0.348216 255 0 0
-0.151955 0.052470 -0.021884 104 209 150
0.213194 0.112057 0.062761 155 199 99
-0.100353 -0.436968 0.040573 102 204 152
0.343347 -0.345290 0.123150 68 137 186
0.409594 -0.274840 0.156741 51 103 203
0.131104 -0.465927 0.402304 127 254 127
0.368894 0.036078 0.117343 143 223 111
-0.143332 -0.059000 0.057188 84 168 170
0.122995 0.275168 -0.150451 216 77 38
0.372856 -0.147571 0.658963 92 185 162
-0.119054 0.080131 -0.108259 137 235 117
-0.114997 -0.035910 -0.080531 127 254 127
0.165675 -0.393219 0.096373 129 251 125
0.249383 -0.487294 0.419997 130 249 124
-0.034933 -0.197154 -0.085527 157 194 97
-0.117346 0.047705 0.340753 69 138 185
0.486305 -0.309601 0.421866 80 160 174
0.230320 0.020742 0.574540 58 117 196
0.100425 0.076272 0.205415 109 219 145
0.265521 0.495563 -0.098477 255 0 0
0.415496 -0.183286 0.108222 77 154 177
0.335402 0.325306 -0.087539 243 23 11
0.239493 -0.477247 0.546231 133 243 121
0.277778 -0.116954 -0.162118 151 207 103
0.415857 -0.040664 0.409044 86 173 168
0.006684 0.050476 0.199460 104 208 150
-0.095484 -0.299381 0.087574 133 243 121
0.391560 -0.047783 0.506938 77 154 177
0.269639 -0.466225 0.639674 141 226 113
0.000728 0.079764 -0.003254 133 242 121
-0.031304 -0.188268 -0.098564 160 188 94
-0.036675 -0.232199 0.566409 91 182 163
0.093044 -0.401553 0.585366 113 227 141
0.156975 0.275652 -0.033215 202 104 52
0.045419 0.443822 -0.094598 222 65 32
0.050167 -0.445804 0.376840 128 253 126
-0.002867 0.118509 0.190967 107 215 147
0.322077 0.055065 -0.169134 200 109 54
-0.104525 -0.314982 0.407199 121 242 133
0.198738 0.205259 -0.310038 255 0 0
0.151373 -0.203843 0.700454 87 175 167
0.351229 0.412410 -0.219591 255 0 0
-0.022109 0.436682 -0.042398 200 109 54
0.448310 -0.187440 0.604092 70 140 184
0.277412 -0.478930 0.591353 140 229 114
0.164521 0.318754 0.124061 183 142 71
-0.073251 -0.285894 0.000401 142 224 112
0.268024 0.319962 -0.054703 229 51 25
0.237437 0.133418 0.045892 164 180 90
-0.120237 -0.112260 0.474804 100 200 154
-0.105382 0.056944 0.329463 71 143 183
0.321986 0.327371 -0.152703 255 0 0
-0.023977 -0.216076 0.055070 134 241 120
0.238092 -0.446252 0.177851 104 208 150
-0.056194 0.124951 0.257151 90 181 164
0.387217 -0.085854 0.591603 84 168 170
0.409860 -0.024957 0.441743 84 169 170
-0.163978 -0.022024 0.352172 56 113 198
0.465409 -0.146866 0.237017 76 153 178
0.461897 -0.175705 0.540225 77 155 177
0.025942 -0.026174 0.054994 126 253 128
0.444805 -0.156936 0.172140 74 149 180
-0.187802 0.031912 0.079632 67 135 187
0.284357 0.113446 0.380671 86 173 168
0.246774 -0.048818 -0.165894 175 159 79
-0.003924 0.128522 0.396332 101 202 153
0.419801 -0.081140 0.541570 87 175 167
0.281985 0.260326 -0.219161 255 0 0
0.275556 0.086430 -0.146487 209 90 45
0.000690 -0.349248 0.539310 106 212 148
0.131204 -0.325507 0.016625 149 211 105
0.465083 -0.138530 0.201676 78 156 176
-0.047011 0.122695 0.132941 100 201 154
0.047253 -0.160679 -0.137518 182 144 72
0.222746 -0.155111 0.001680 141 226 113
0.118489 0.514851 -0.070720 248 13 6
0.281588 0.000435 -0.158965 187 134 67
0.286216 0.164579 0.060336 168 172 86
-0.193212 -0.010770 0.151813 46 93 208
0.023592 -0.347632 0.128606 150 208 104
-0.102656 -0.104327 0.485643 94 188 160
0.201242 0.474654 0.022840 244 20 10
0.328014 0.093234 0.138734 139 231 115
0.190064 0.300749 -0.223621 250 8 4
-0.027659 0.002027 0.008937 120 241 134
-0.082675 -0.237608 0.491435 99 198 155
-0.110271 0.329585 -0.082393 169 170 85
0.228489 0.294182 0.040362 197 114 57
0.447486 -0.222729 0.637961 67 134 187
-0.047761 0.093161 0.032220 114 229 140
0.390196 -0.000819 0.309054 96 193 158
0.171989 0.273497 0.027096 195 118 59
0.193299 0.080109 0.057838 151 206 103
0.257060 -0.119773 -0.169872 151 206 103
0.276464 0.195554 -0.437696 252 5 2
-0.031752 0.035246 -0.163023 165 179 89
0.450776 -0.297149 0.246043 38 76 216
0.374814 -0.262348 0.728525 93 187 161
0.010267 -0.414021 0.433241 120 241 134
-0.115063 0.002622 0.421856 84 168 170
0.395388 -0.446034 0.347201 75 150 179
0.337440 0.231910 -0.012184 205 99 49
0.008538 -0.369117 0.522782 109 218 145
0.016495 -0.213873 0.101330 136 236 118
0.172416 0.094022 -0.024194 178 152 76
0.183429 0.265006 0.222541 149 211 105
0.372024 0.030628 0.351326 89 179 165
0.290554 0.159307 0.066820 166 177 88
-0.187075 -0.033945 0.275465 38 77 216
-0.037279 0.120803 0.284105 96 192 158
0.151240 0.292034 -0.111712 217 74 37
-0.054126 0.203076 0.081995 120 240 134
0.040730 -0.177517 0.008641 151 206 103
-0.122709 0.248963 -0.046566 142 224 112
-0.056155 -0.370840 0.039541 126 253 128
0.165479 -0.456814 0.297881 133 243 121
0.126484 0.149639 0.141796 139 230 115
0.155304 0.524907 -0.111151 255 0 0
-0.160932 -0.060913 0.172105 55 110 199
0.015665 0.282150 0.151594 145 219 109
0.304268 0.048179 -0.070316 182 145 72
0.166525 0.441807 -0.289295 255 0 0
0.190006 0.464221 -0.278282 255 0 0
0.349534 -0.340873 0.132966 65 131 189
0.298148 0.460531 -0.109413 255 0 0
0.089071 0.173254 -0.075670 179 150 75
-0.034800 -0.183302 0.087720 120 240 134
-0.161285 0.126547 0.212157 62 125 192
-0.047707 0.230693 0.037586 134 241 120
0.306381 0.443733 -0.272905 255 0 0
0.311557 -0.106882 -0.186137 148 212 106
-0.106903 -0.327984 0.397814 125 250 129
0.077343 0.089504 -0.030103 159 190 95
0.228713 0.508223 -0.206634 255 0 0
0.481118 -0.412350 0.608127 93 186 161
-0.046253 -0.275529 0.135398 131 247 123
0.455378 -0.172305 0.576275 72 145 182
0.422564 -0.051795 0.339355 96 192 158
0.466803 -0.309782 0.284174 40 81 214
0.258726 -0.472994 0.602550 138 233 116
0.239650 -0.254719 0.010204 122 245 132
-0.124876 0.033049 0.358271 69 138 185
-0.066658 0.598260 -0.055058 240 29 14
0.195912 -0.240088 -0.031214 143 223 111
0.305868 0.122282 -0.280905 220 68 34
0.256413 0.284320 -0.205316 255 0 0
0.134478 -0.046205 0.622380 57 115 197
0.364402 0.052427 0.195720 123 247 131
-0.107882 0.051462 0.200201 66 133 188
0.145707 0.201083 0.331603 112 224 142
-0.116444 -0.340387 0.211656 130 248 124
-0.128253 0.354342 -0.048697 166 177 88
0.280945 0.186899 0.057264 173 163 81
-0.129853 -0.288430 0.293339 113 227 141
0.395020 0.157115 -0.375823 230 48 24
-0.056570 0.162755 0.087320 111 222 143
0.128999 0.164907 -0.094810 192 124 62
0.313039 0.506628 -0.294838 255 0 0
-0.134925 -0.006765 0.063099 82 164 172
-0.028630 -0.122691 -0.015082 133 243 121
-0.119029 0.176380 0.153600 89 179 165
0.249318 -0.479549 0.542599 134 241 120
0.245111 0.473691 -0.301624 255 0 0
0.140178 0.004509 0.587749 55 111 199
0.237780 -0.232058 0.734676 104 208 150
0.483691 -0.393659 0.609898 87 175 167
0.295599 -0.013181 -0.106079 175 159 79
-0.041743 0.116050 0.163058 97 195 157
0.286757 -0.228542 0.739820 110 220 144
0.006929 -0.396318 0.485727 115 231 139
0.362414 0.346632 -0.228987 255 0 0
0.013962 -0.399336 0.224999 141 227 113
-0.116949 -0.094287 -0.023482 114 228 140
-0.035061 0.011667 0.043952 111 222 143
-0.118070 -0.102327 0.065050 92 184 162
-0.121285 0.560991 -0.088221 229 51 25
0.264065 0.211254 -0.046062 205 98 49
-0.112579 -0.002779 -0.127290 141 227 113
-0.056548 -0.316664 0.489604 107 215 147
-0.099412 0.066823 0.308608 72 144 182
0.117425 -0.453313 0.382288 124 249 130
0.269084 0.376906 -0.074777 247 15 7
0.334155 -0.486403 0.599114 144 220 110
0.294092 -0.228281 0.028249 108 216 146
0.297874 0.333294 -0.083911 241 27 13
0.087622 -0.321326 0.005522 164 180 90
0.070510 0.182299 0.316703 113 227 141
-0.181433 -0.085710 0.349506 58 117 196
-0.000844 -0.305474 0.108841 151 207 103
0.436536 -0.083598 0.433276 90 180 164
0.181406 -0.461435 0.536786 125 250 129
-0.083879 0.004277 -0.137280 148 212 106
-0.137266 -0.034030 -0.022188 106 212 148
-0.017784 -0.246507 -0.002293 151 207 103
0.058077 0.430561 0.085057 196 117 58
-0.036531 -0.211441 0.117571 121 242 133
0.073601 -0.453396 0.395508 127 254 127
-0.111225 0.080589 -0.084552 131 247 123
-0.141577 0.046672 -0.168173 150 208 104
0.190307 0.010372 0.046504 147 215 107
0.089236 0.498154 -0.015909 230 48 24
-0.118244 -0.030032 -0.098459 131 246 123
0.341698 -0.136076 0.671937 91 182 163
0.447565 -0.243114 0.209666 48 97 206
-0.109870 -0.042761 -0.067893 124 249 130
-0.053172 0.003107 0.059430 103 206 151
0.122330 0.445674 0.096410 212 84 42
0.269241 0.165356 0.045823 171 166 83
-0.137248 0.056066 -0.079173 124 248 130
-0.151894 -0.213966 0.234138 87 174 167
0.309476 0.482670 -0.279972 255 0 0
0.088686 -0.283319 0.031499 162 185 92
-0.083625 0.546941 -0.025759 219 71 35
0.303215 0.329018 -0.025437 225 58 29
0.006600 0.041773 0.013875 129 251 125
0.458814 -0.174341 0.585680 70 140 184
-0.014013 0.070988 -0.013777 131 246 123
0.004809 0.134378 0.117506 119 238 135
-0.160175 -0.177486 0.286921 76 152 178
0.211666 0.128676 0.057766 159 191 95
0.358122 -0.492231 0.491426 125 250 129
0.408185 -0.015673 0.400919 87 174 167
0.006728 -0.221971 0.087772 137 234 117
0.308325 0.007670 0.030379 156 197 98
0.157152 0.493441 -0.219486 255 0 0
0.277473 0.067685 -0.168979 208 92 46
0.134144 0.076250 0.131446 129 251 125
-0.098139 -0.035066 0.474012 95 190 159
0.175662 -0.015766 0.059451 140 228 114
0.220662 0.029129 -0.156776 203 103 51
-0.094176 -0.203288 -0.012116 130 248 124
0.391491 -0.112691 0.086787 102 205 152
0.462603 -0.153726 0.169054 73 147 181
0.354039 -0.472049 0.679538 133 242 121
0.121198 0.109267 0.466989 73 146 181
0.434546 -0.268918 0.191685 44 89 210
-0.123339 -0.131775 -0.115607 143 223 111
0.351608 0.056355 0.043705 162 185 92
-0.111502 0.048028 0.365552 75 150 179
0.029491 0.043377 -0.165243 178 153 76
-0.134758 -0.202308 0.264844 87 174 167
0.344981 0.053773 0.025513 164 181 90
-0.040437 0.356042 -0.093020 187 134 67
-0.076065 -0.280839 0.482203 104 209 150
0.303419 -0.064993 0.622452 70 140 184
0.382563 -0.149486 0.069040 97 194 157
0.126342 -0.452280 0.405356 122 245 132
0.272469 0.490888 -0.102303 255 0 0
0.069485 0.408823 -0.140524 227 55 27
0.261882 0.339364 -0.382139 255 0 0
0.255297 0.117321 0.032628 166 176 88
-0.094075 -0.381157 0.034648 116 232 138
0.215430 -0.400318 0.113755 111 223 143
-0.027884 -0.268569 0.097284 137 234 117
0.321473 -0.116054 -0.182580 145 219 109
0.414483 -0.467969 0.673796 118 237 136
0.012194 -0.158956 -0.000066 143 222 111
0.156898 0.157371 0.102087 151 207 103
-0.094211 -0.443814 0.176805 129 250 125
0.057887 0.473493 -0.101779 232 45 22
-0.092070 -0.393952 0.020904 111 223 143
0.199349 0.069136 -0.169355 217 75 37
-0.002534 -0.376243 0.522595 113 226 141
0.394787 -0.300591 0.155118 52 104 202
-0.014292 -0.318292 0.551322 102 204 152
-0.005650 0.396116 0.033940 181 147 73
0.363268 0.374238 -0.239988 255 0 0
-0.108801 -0.051302 -0.063463 123 247 131
0.445850 -0.100073 0.421787 93 187 161
-0.051110 -0.015922 0.061184 103 207 151
-0.102795 0.048593 -0.164768 154 200 100
-0.126589 -0.138645 0.156594 79 159 175
-0.075504 -0.156905 -0.029990 130 248 124
-0.069023 -0.368533 0.190301 147 214 107
-0.112844 -0.119895 0.488249 97 195 157
0.100510 -0.243656 -0.003206 165 178 89
0.469152 -0.149109 0.241019 75 151 179
0.001286 -0.361757 0.525572 108 217 146
0.103613 0.026522 -0.013057 161 187 93
0.322958 0.037568 0.090629 144 220 110
0.132697 0.234219 0.249143 135 238 119
0.273054 0.234574 -0.400524 255 0 0
0.369145 -0.054163 0.014038 132 245 122
0.443814 -0.083946 0.522538 94 188 160
0.142380 -0.180503 -0.118653 160 189 94
0.344346 -0.043584 -0.158854 169 171 85
0.324234 0.089088 0.311094 97 194 157
0.057711 0.050224 0.118561 127 254 127
0.113133 -0.344432 0.675648 111 223 143
0.365955 -0.127089 0.662040 93 187 161
0.396040 0.146099 -0.351945 226 57 28
-0.009893 -0.094498 0.584409 74 148 180
0.265784 -0.404475 0.136375 93 187 161
-0.136341 -0.258467 0.219017 103 206 151
0.022210 0.086940 -0.125604 168 173 86
0.121639 -0.436350 0.536771 118 236 136
-0.030395 -0.288190 0.114357 139 230 115
-0.108404 -0.120695 0.485581 96 192 158
0.006810 -0.401002 0.200955 147 214 107
-0.041330 0.210293 0.011965 136 236 118
0.228484 0.109122 -0.054307 191 127 63
-0.077360 -0.397944 0.020234 113 226 141
0.056186 0.125999 0.206337 123 246 131
0.069873 -0.282445 -0.010542 171 167 83
0.091471 -0.083719 0.632063 63 126 191
0.138341 0.228467 -0.161021 215 78 39
0.273324 0.314630 -0.051718 227 54 27
0.061888 0.399730 -0.124014 220 68 34
0.044120 -0.332039 0.096635 154 200 100
0.096814 0.224475 -0.053107 183 143 71
0.118949 -0.333953 0.069090 146 216 108
0.074554 0.074320 -0.008294 153 202 101
0.215841 0.416204 0.048779 225 58 29
-0.157455 -0.139905 0.348494 74 149 180
0.265932 0.302680 0.021669 206 97 48
0.307544 0.442109 -0.111352 255 0 0
0.156842 -0.459115 0.313036 132 244 122
-0.067657 -0.049368 0.517482 85 171 169
0.441707 -0.179606 0.618203 70 141 184
-0.142037 -0.050356 0.222490 54 108 200
-0.154198 -0.216296 0.112306 98 197 156
-0.037534 0.120557 0.170592 99 198 155
-0.000873 -0.413444 0.350372 128 253 126
0.316420 -0.334157 0.104905 79 159 175
-0.029433 -0.387718 0.114421 139 231 115
0.271494 0.162892 -0.267882 236 36 18
0.354397 -0.012259 0.074374 138 233 116
-0.038825 0.111098 0.156927 98 197 156
-0.153801 -0.033977 -0.011389 100 200 154
0.002804 -0.410960 0.330058 129 251 125
0.046618 -0.247998 -0.049036 173 163 81
-0.074063 -0.300319 0.111120 134 241 120
-0.141399 0.006641 0.269660 51 103 203
0.354345 -0.476710 0.664496 134 240 120
0.109802 -0.040322 0.011057 157 195 97
0.421662 -0.301327 0.190239 42 84 212
-0.012358 0.201350 -0.031679 150 208 104
-0.057213 0.003221 -0.050730 128 252 126
0.304207 0.138109 0.141955 143 222 111
-0.153461 0.136885 0.166328 71 142 183
0.151173 -0.303505 0.028698 142 225 112
-0.099212 -0.326519 0.418802 121 243 133
-0.004601 0.086033 -0.094934 154 200 100
-0.111852 -0.093062 0.469050 97 194 157
0.096274 -0.344674 0.065325 154 201 100
-0.047567 0.157351 0.019324 125 250 129
0.215632 0.241639 -0.380116 255 0 0
0.245349 0.355558 -0.070726 240 29 14
-0.028715 0.063974 0.485872 88 177 166
0.202878 0.068143 0.025466 160 189 94
-0.194295 -0.187189 0.129373 82 164 172
0.209833 -0.011106 0.033500 150 209 104
0.263631 0.394420 -0.046569 243 22 11
0.027474 -0.196621 0.021809 148 212 106
0.457807 -0.269674 0.252651 43 87 211
0.373999 -0.271819 0.104906 68 136 186
-0.015366 0.173881 -0.013349 141 226 113
-0.132811 -0.097302 0.252909 63 126 191
0.123093 0.072546 0.184624 113 226 141
0.173963 0.252843 -0.006688 199 110 55
-0.031170 -0.089186 -0.168414 169 170 85
0.266697 -0.134620 -0.024139 139 230 115
0.081573 0.119434 0.014654 154 200 100
0.274635 0.166723 -0.433381 242 25 12
0.159927 -0.200498 0.014109 150 209 104
0.399975 -0.014344 0.237774 112 225 142
-0.023491 -0.172368 0.008496 135 239 119
0.449358 -0.401225 0.705368 94 188 160
0.000812 0.090722 0.197018 105 210 149
-0.077371 0.416307 -0.104578 198 112 56
-0.129029 -0.278948 0.239653 110 220 144
0.194725 0.183071 -0.337358 250 8 4
0.256577 -0.046044 -0.092384 172 165 82
0.254708 -0.035027 0.615081 61 123 193
0.044082 -0.345193 0.071609 158 193 96
0.272633 0.150787 0.061847 164 180 90
0.322097 0.138617 0.000222 184 140 70
-0.110073 0.191660 0.042286 113 226 141
0.470568 -0.341028 0.664489 74 149 180
0.005293 0.408144 -0.005447 191 126 63
0.297988 -0.240209 0.035045 104 208 150
0.160628 0.339361 -0.142394 233 43 21
0.037581 0.094583 -0.020970 147 214 107
0.025402 -0.297810 0.615489 98 196 156
0.213057 0.273410 -0.238913 255 0 0
-0.046204 0.072880 0.045168 110 221 144
-0.028693 0.213928 0.187230 116 233 138
-0.016277 0.369102 -0.076863 191 127 63
0.318556 0.202022 0.119150 163 182 91
0.100676 -0.354080 0.067489 152 204 102
0.145818 -0.102480 -0.003298 159 190 95
0.023999 0.067117 0.016242 134 240 120
0.176886 0.311722 0.082065 191 127 63
0.398737 -0.018722 0.069921 131 247 123
0.481364 -0.234028 0.343003 67 135 187
0.314825 0.213814 -0.164153 241 27 13
0.098555 0.013231 0.022825 153 203 101
0.405524 -0.071061 0.528302 82 164 172
0.163841 0.309613 -0.315444 255 0 0
-0.084196 -0.363717 0.373151 129 251 125
0.307036 -0.053662 0.042842 138 232 116
0.015094 -0.326550 0.052268 153 202 101
0.342948 -0.336981 0.750928 113 226 141
0.114516 -0.227164 0.047566 149 210 105
0.454792 -0.130898 0.235830 82 165 172
0.120726 -0.276097 -0.003329 157 194 97
0.067732 -0.417406 0.164319 153 203 101
0.109641 0.086492 0.007974 161 187 93
-0.105645 -0.052919 0.064346 90 181 164
0.162308 0.159658 -0.098632 201 107 53
0.276358 0.357402 -0.068746 241 26 13
0.089822 0.378030 -0.147749 226 57 28
0.449671 -0.192811 0.185329 62 125 192
0.210245 -0.000048 -0.008664 165 179 89
0.164590 -0.423257 0.145816 127 254 127
0.310803 0.495427 -0.294764 255 0 0
-0.019250 0.184734 -0.011388 142 225 112
0.363954 0.047583 0.084670 153 203 101
0.231964 -0.162743 0.003027 138 233 116
0.145728 -0.042462 0.016466 154 201 100
0.128519 0.043005 0.175384 110 221 144
0.211618 -0.374875 0.089061 114 229 140
-0.083429 0.147407 -0.072437 138 232 116
0.004752 0.113901 0.425792 93 187 161
0.368379 0.210448 -0.353893 248 12 6
0.210400 0.552913 -0.197670 255 0 0
0.141851 -0.455300 0.316638 131 247 123
0.104319 0.208953 0.286760 123 247 131
0.130304 -0.020658 0.039151 148 213 106
0.284689 -0.489950 0.508843 138 232 116
0.089313 -0.426081 0.226518 140 229 114
0.261083 0.045961 -0.036264 180 149 74
0.090856 0.092809 -0.011191 160 189 94
0.002434 -0.002600 -0.056389 143 222 111
-0.139863 0.000373 -0.108013 131 247 123
-0.117392 -0.426927 0.154800 124 248 130
-0.055436 0.006724 -0.059138 131 246 123
0.022702 -0.094664 -0.168954 180 149 74
-0.083292 0.591244 -0.013449 230 48 24
-0.103130 -0.003156 0.449893 94 188 160
0.159690 0.319380 -0.252673 253 3 1
-0.124775 -0.027465 0.419825 82 164 172
-0.012898 0.124518 0.379980 103 206 151
0.215645 -0.478184 0.493819 129 250 125
-0.093817 -0.266559 0.055127 130 248 124
0.438629 -0.112274 0.130893 92 184 162
0.373179 0.258502 -0.269340 255 0 0
0.113220 -0.131568 0.080008 133 243 121
-0.191963 -0.187284 0.073495 93 186 161
0.399609 -0.131028 0.621458 87 174 167
0.314642 -0.471768 0.297971 90 180 164
-0.013810 0.135821 0.341203 109 219 145
0.137633 0.228442 0.179526 148 213 106
-0.045345 -0.205423 -0.014890 140 228 114
-0.131811 -0.139811 0.429391 95 190 159
0.183630 -0.202568 -0.102611 148 212 106
0.276569 0.384112 -0.077291 249 10 5
0.056688 -0.428143 0.370476 122 245 132
0.056028 0.120323 0.207002 122 244 132
-0.141855 -0.306968 0.205389 117 234 137
0.389393 -0.015597 0.253917 106 213 148
-0.034892 0.016127 -0.064661 137 235 117
0.323589 0.105419 0.123907 144 220 110
0.341952 0.252693 0.051668 193 123 61
0.465731 -0.159904 0.504412 85 171 169
0.260350 0.109336 0.423914 78 156 176
-0.135198 -0.097680 0.414454 84 169 170
0.305595 0.206126 0.021383 188 132 66
-0.068202 -0.293586 0.121089 132 244 122
0.056333 0.360873 0.134650 174 161 80
0.310885 -0.053867 0.026925 140 229 114
-0.137582 -0.239057 0.172017 100 200 154
0.194826 0.181454 -0.392255 251 6 3
0.038643 -0.081252 -0.170560 183 143 71
0.155614 -0.215418 0.015893 149 210 105
0.109746 -0.449065 0.438863 121 242 133
0.419161 -0.115421 0.583852 86 173 168
-0.150094 -0.298578 0.190740 114 228 140
-0.203078 -0.079551 0.143893 53 107 201
0.237124 0.139035 0.014566 174 160 80
0.286110 0.091295 0.079729 151 207 103
0.010231 0.285497 0.146270 145 219 109
-0.126890 0.323100 -0.044475 158 193 96
0.290314 0.108051 0.126572 140 228 114
0.003189 0.410715 -0.013783 193 123 61
0.399134 -0.069197 0.562977 84 168 170
0.047987 0.075355 0.511841 74 149 180
-0.040634 -0.239211 0.218648 118 236 136
0.098748 0.036889 0.557397 61 123 193
0.358473 0.370186 -0.216194 255 0 0
-0.087731 0.211546 0.073094 115 231 139
0.480723 -0.264127 0.564927 70 141 184
0.153345 0.064528 -0.053758 183 142 71
0.390586 0.002520 0.209569 119 238 135
-0.000548 0.407105 -0.002544 189 130 65
-0.061339 0.092896 0.141642 91 183 163
-0.103431 -0.334160 0.364564 128 253 126
0.427686 -0.062943 0.414536 88 177 166
0.369572 -0.492766 0.527117 133 243 121
0.326001 -0.318608 0.754744 116 232 138
0.252646 0.253205 -0.327864 255 0 0
-0.043550 -0.039466 -0.166801 164 180 90
-0.087065 -0.087862 -0.137940 151 207 103
0.189903 -0.472548 0.275185 125 250 129
0.237960 0.048647 -0.174641 206 97 48
-0.026593 -0.233454 0.220146 116 233 138
0.320708 0.216074 -0.237302 252 5 2
0.267934 -0.213498 0.012904 119 239 135
-0.100494 0.088257 -0.122730 144 220 110
0.048447 0.072646 0.008276 143 223 111
0.420581 -0.046408 0.371355 91 183 163
0.112072 -0.250065 -0.048723 161 186 93
0.486560 -0.393737 0.508586 102 205 152
0.419495 -0.002876 0.414845 91 182 163
0.243445 0.088960 -0.081872 198 113 56
0.341144 0.044128 0.431087 75 151 179
0.137996 0.175571 -0.052771 187 134 67
-0.131510 0.019925 0.293851 57 114 197
0.235595 0.372736 -0.001023 226 56 28
-0.050206 -0.267670 0.532743 97 195 157
0.023613 0.493661 -0.147811 239 30 15
-0.129604 -0.317500 0.297818 122 245 132
-0.062759 -0.027311 -0.053331 128 252 126
-0.162910 -0.113600 0.130850 70 141 184
0.265005 0.020195 -0.006661 168 173 86
0.156823 -0.111670 -0.008548 161 187 93
0.117252 0.152753 0.048014 163 183 91
0.212480 0.166091 -0.426912 247 15 7
0.262780 0.305891 -0.104993 239 30 15
-0.004566 -0.397263 0.285048 132 244 122
0.093804 0.035431 0.038811 149 211 105
-0.013316 -0.375132 0.227768 138 232 116
0.331514 0.307413 0.002272 216 77 38
0.130085 0.090839 -0.064686 180 148 74
0.184481 0.236306 -0.316935 255 0 0
-0.124162 0.032879 0.123010 71 143 183
0.205012 0.492208 -0.239718 255 0 0
0.046848 0.193801 0.193835 133 242 121
0.334702 -0.306880 0.756605 112 224 142
0.365784 0.302212 -0.364141 255 0 0
0.016896 -0.141264 -0.149533 177 154 77
0.207638 0.261591 0.243014 144 220 110
0.103345 -0.463119 0.353365 131 247 123
0.317300 0.194576 0.102250 166 177 88
0.387221 0.028502 0.445909 84 169 170
-0.029330 -0.335801 0.102412 149 211 105
0.256414 0.038739 -0.053064 184 140 70
-0.102646 0.086344 -0.090368 134 240 120
0.086342 -0.113348 -0.163069 183 142 71
-0.087094 -0.138828 -0.134670 154 200 100
0.314867 0.078919 -0.107901 195 119 59
0.388479 0.055648 0.219580 122 245 132
0.160641 0.132167 0.434988 79 159 175
0.010072 0.053575 0.094823 116 232 138
0.273614 -0.486388 0.365593 113 227 141
0.245949 -0.003037 0.057260 144 220 110
0.331780 0.309109 -0.014182 220 68 34
0.474351 -0.241336 0.286887 53 107 201
-0.011404 0.239535 0.149524 129 250 125
0.446404 -0.462873 0.637998 111 223 143
0.025442 0.153025 0.019716 142 225 112
0.364421 0.212363 -0.366968 249 10 5
-0.127749 0.069527 -0.155962 149 210 105
-0.071925 0.084682 0.196359 81 163 173
-0.019611 0.050774 0.017750 122 244 132
0.166927 0.088897 0.034172 159 190 95
-0.134892 -0.403969 0.079414 111 222 143
0.140637 0.447728 -0.257189 255 0 0
-0.113369 -0.165844 0.180172 86 172 168
-0.194390 -0.155916 0.279837 63 127 191
-0.166094 -0.216013 0.034229 111 223 143
0.276301 0.037402 0.079630 143 223 111
0.028721 -0.384166 0.141706 154 201 100
0.259725 0.367954 -0.045241 237 35 17
0.368225 -0.118763 0.629882 86 173 168
0.464830 -0.281116 0.279501 44 89 210
-0.066119 0.117545 0.277427 86 173 168
0.366329 0.199341 -0.326164 244 21 10
0.351994 0.258312 -0.360694 255 0 0
0.221571 0.228612 -0.420843 255 0 0
0.307903 -0.113274 0.018533 127 254 127
0.292248 0.324194 0.047749 206 97 48
0.048546 -0.361209 0.111279 155 198 99
-0.026041 0.214034 0.191241 117 234 137
-0.096817 0.029885 -0.169776 156 196 98
-0.142977 -0.128620 0.066804 90 181 164
0.303521 0.319920 -0.132691 252 5 2
-0.042280 -0.272171 0.129571 131 246 123
0.301538 0.163482 -0.067071 206 96 48
0.113750 -0.205712 0.684590 85 170 169
0.076204 -0.432606 0.463257 117 235 137
0.312952 0.008696 0.546092 66 132 188
0.327898 0.115304 -0.268506 217 75 37
0.061617 0.050960 0.160797 121 243 133
-0.136482 -0.010201 -0.138660 141 227 113
